ply
format ascii 1.0
element vertex 1318
property float x
property float y
property float z
property uchar red
property uchar green
property uchar blue
end_header
0.109083 0.021173 0.521000 19 0 135
0.109654 0.021173 0.521000 19 0 135
0.110226 0.021173 0.521000 19 0 135
0.110798 0.021173 0.521000 19 0 135
0.111369 0.021173 0.521000 19 0 135
0.111941 0.021173 0.521000 19 0 135
0.112728 0.021213 0.522000 19 0 135
0.113301 0.021213 0.522000 19 0 135
0.113874 0.021213 0.522000 19 0 135
0.114666 0.021254 0.523000 19 0 135
0.035666 0.023887 0.572000 46 26 162
0.036293 0.023887 0.572000 46 26 162
0.036921 0.023887 0.572000 46 26 162
0.037548 0.023887 0.572000 46 26 162
0.038176 0.023887 0.572000 46 26 162
0.038871 0.023929 0.573000 46 26 162
0.039500 0.023929 0.573000 46 26 162
0.040199 0.023971 0.574000 46 26 162
0.040829 0.023971 0.574000 46 26 162
0.041458 0.023971 0.574000 46 26 162
0.042161 0.024012 0.575000 46 26 162
0.042792 0.024012 0.575000 46 26 162
0.043423 0.024012 0.575000 46 26 162
0.044054 0.024012 0.575000 46 26 162
0.044685 0.024012 0.575000 46 26 162
0.045316 0.024012 0.575000 46 26 162
0.045947 0.024012 0.575000 46 26 162
0.046577 0.024012 0.575000 46 26 162
0.047208 0.024012 0.575000 46 26 162
0.047839 0.024012 0.575000 46 26 162
0.048470 0.024012 0.575000 46 26 162
0.049101 0.024012 0.575000 46 26 162
0.049732 0.024012 0.575000 46 26 162
0.050363 0.024012 0.575000 46 26 162
0.050994 0.024012 0.575000 46 26 162
0.051624 0.024012 0.575000 46 26 162
0.052255 0.024012 0.575000 46 26 162
0.052978 0.024054 0.576000 46 26 162
0.053610 0.024054 0.576000 46 26 162
0.054148 0.024012 0.575000 46 26 162
0.054779 0.024012 0.575000 46 26 162
0.055410 0.024012 0.575000 46 26 162
0.056040 0.024012 0.575000 46 26 162
0.056671 0.024012 0.575000 46 26 162
0.057302 0.024012 0.575000 46 26 162
0.057933 0.024012 0.575000 46 26 162
0.059075 0.022300 0.534000 46 26 162
0.063746 0.022091 0.529000 19 0 135
0.064204 0.022050 0.528000 19 0 135
0.064661 0.022008 0.527000 19 0 135
0.065239 0.022008 0.527000 19 0 135
0.065817 0.022008 0.527000 19 0 135
0.066270 0.021966 0.526000 19 0 135
0.066847 0.021966 0.526000 19 0 135
0.067424 0.021966 0.526000 19 0 135
0.068001 0.021966 0.526000 19 0 135
0.068448 0.021924 0.525000 19 0 135
0.069024 0.021924 0.525000 19 0 135
0.069600 0.021924 0.525000 19 0 135
0.070042 0.021883 0.524000 19 0 135
0.070617 0.021883 0.524000 19 0 135
0.071192 0.021883 0.524000 19 0 135
0.071630 0.021841 0.523000 19 0 135
0.072204 0.021841 0.523000 19 0 135
0.072499 0.021757 0.521000 19 0 135
0.072930 0.021715 0.520000 19 0 135
0.073360 0.021674 0.519000 19 0 135
0.073787 0.021632 0.518000 19 0 135
0.074355 0.021632 0.518000 19 0 135
0.074779 0.021590 0.517000 19 0 135
0.075346 0.021590 0.517000 19 0 135
0.075766 0.021548 0.516000 19 0 135
0.076332 0.021548 0.516000 19 0 135
0.076749 0.021507 0.515000 19 0 135
0.077315 0.021507 0.515000 19 0 135
0.077880 0.021507 0.515000 19 0 135
0.078445 0.021507 0.515000 19 0 135
0.079010 0.021507 0.515000 19 0 135
0.079575 0.021507 0.515000 19 0 135
0.080140 0.021507 0.515000 19 0 135
0.080705 0.021507 0.515000 19 0 135
0.081270 0.021507 0.515000 19 0 135
0.081676 0.021465 0.514000 19 0 135
0.082240 0.021465 0.514000 19 0 135
0.082804 0.021465 0.514000 19 0 135
0.083530 0.021507 0.515000 19 0 135
0.083932 0.021465 0.514000 19 0 135
0.084496 0.021465 0.514000 19 0 135
0.085060 0.021465 0.514000 19 0 135
0.085623 0.021465 0.514000 19 0 135
0.086187 0.021465 0.514000 19 0 135
0.086751 0.021465 0.514000 19 0 135
0.087315 0.021465 0.514000 19 0 135
0.087879 0.021465 0.514000 19 0 135
0.088443 0.021465 0.514000 19 0 135
0.089007 0.021465 0.514000 19 0 135
0.089571 0.021465 0.514000 19 0 135
0.090135 0.021465 0.514000 19 0 135
0.090699 0.021465 0.514000 19 0 135
0.091085 0.021423 0.513000 19 0 135
0.091648 0.021423 0.513000 19 0 135
0.092211 0.021423 0.513000 19 0 135
0.092774 0.021423 0.513000 19 0 135
0.093337 0.021423 0.513000 19 0 135
0.093900 0.021423 0.513000 19 0 135
0.094462 0.021423 0.513000 19 0 135
0.095025 0.021423 0.513000 19 0 135
0.095588 0.021423 0.513000 19 0 135
0.096151 0.021423 0.513000 19 0 135
0.096714 0.021423 0.513000 19 0 135
0.097277 0.021423 0.513000 19 0 135
0.097839 0.021423 0.513000 19 0 135
0.098402 0.021423 0.513000 19 0 135
0.098965 0.021423 0.513000 19 0 135
0.099528 0.021423 0.513000 19 0 135
0.100091 0.021423 0.513000 19 0 135
0.100654 0.021423 0.513000 19 0 135
0.101216 0.021423 0.513000 19 0 135
0.101779 0.021423 0.513000 19 0 135
0.102342 0.021423 0.513000 19 0 135
0.107162 0.021715 0.520000 19 0 135
0.107732 0.021715 0.520000 19 0 135
0.108303 0.021715 0.520000 19 0 135
0.109083 0.021757 0.521000 19 0 135
0.109654 0.021757 0.521000 19 0 135
0.110226 0.021757 0.521000 19 0 135
0.110798 0.021757 0.521000 19 0 135
0.111369 0.021757 0.521000 19 0 135
0.111941 0.021757 0.521000 19 0 135
0.112512 0.021757 0.521000 19 0 135
0.113301 0.021799 0.522000 19 0 135
0.113874 0.021799 0.522000 19 0 135
0.114447 0.021799 0.522000 19 0 135
0.036293 0.024529 0.572000 46 26 162
0.036921 0.024529 0.572000 46 26 162
0.037548 0.024529 0.572000 46 26 162
0.038176 0.024529 0.572000 46 26 162
0.038804 0.024529 0.572000 46 26 162
0.039500 0.024572 0.573000 46 26 162
0.040129 0.024572 0.573000 46 26 162
0.040757 0.024572 0.573000 46 26 162
0.041458 0.024614 0.574000 46 26 162
0.042088 0.024614 0.574000 46 26 162
0.042718 0.024614 0.574000 46 26 162
0.043423 0.024657 0.575000 46 26 162
0.044054 0.024657 0.575000 46 26 162
0.044685 0.024657 0.575000 46 26 162
0.045316 0.024657 0.575000 46 26 162
0.045947 0.024657 0.575000 46 26 162
0.046577 0.024657 0.575000 46 26 162
0.047208 0.024657 0.575000 46 26 162
0.047839 0.024657 0.575000 46 26 162
0.048470 0.024657 0.575000 46 26 162
0.049101 0.024657 0.575000 46 26 162
0.049732 0.024657 0.575000 46 26 162
0.050363 0.024657 0.575000 46 26 162
0.050994 0.024657 0.575000 46 26 162
0.051624 0.024657 0.575000 46 26 162
0.052255 0.024657 0.575000 46 26 162
0.052886 0.024657 0.575000 46 26 162
0.053517 0.024657 0.575000 46 26 162
0.054148 0.024657 0.575000 46 26 162
0.054779 0.024657 0.575000 46 26 162
0.055410 0.024657 0.575000 46 26 162
0.055943 0.024614 0.574000 46 26 162
0.056573 0.024614 0.574000 46 26 162
0.057203 0.024614 0.574000 46 26 162
0.057832 0.024614 0.574000 46 26 162
0.058489 0.022899 0.534000 46 26 162
0.059075 0.022899 0.534000 46 26 162
0.061772 0.022813 0.532000 19 0 135
0.062239 0.022770 0.531000 19 0 135
0.062703 0.022728 0.530000 19 0 135
0.063285 0.022728 0.530000 19 0 135
0.063746 0.022685 0.529000 19 0 135
0.064326 0.022685 0.529000 19 0 135
0.064784 0.022642 0.528000 19 0 135
0.065363 0.022642 0.528000 19 0 135
0.065817 0.022599 0.527000 19 0 135
0.066396 0.022599 0.527000 19 0 135
0.066847 0.022556 0.526000 19 0 135
0.067424 0.022556 0.526000 19 0 135
0.068001 0.022556 0.526000 19 0 135
0.068578 0.022556 0.526000 19 0 135
0.069155 0.022556 0.526000 19 0 135
0.069600 0.022513 0.525000 19 0 135
0.070176 0.022513 0.525000 19 0 135
0.070617 0.022470 0.524000 19 0 135
0.071192 0.022470 0.524000 19 0 135
0.071767 0.022470 0.524000 19 0 135
0.072342 0.022470 0.524000 19 0 135
0.072917 0.022470 0.524000 19 0 135
0.073071 0.022342 0.521000 19 0 135
0.073360 0.022256 0.519000 19 0 135
0.073787 0.022213 0.518000 19 0 135
0.074355 0.022213 0.518000 19 0 135
0.074779 0.022170 0.517000 19 0 135
0.075346 0.022170 0.517000 19 0 135
0.075766 0.022127 0.516000 19 0 135
0.076332 0.022127 0.516000 19 0 135
0.076749 0.022084 0.515000 19 0 135
0.077315 0.022084 0.515000 19 0 135
0.077880 0.022084 0.515000 19 0 135
0.078445 0.022084 0.515000 19 0 135
0.079010 0.022084 0.515000 19 0 135
0.079575 0.022084 0.515000 19 0 135
0.080140 0.022084 0.515000 19 0 135
0.080548 0.022041 0.514000 19 0 135
0.081270 0.022084 0.515000 19 0 135
0.081835 0.022084 0.515000 19 0 135
0.082240 0.022041 0.514000 19 0 135
0.082804 0.022041 0.514000 19 0 135
0.083368 0.022041 0.514000 19 0 135
0.083932 0.022041 0.514000 19 0 135
0.084496 0.022041 0.514000 19 0 135
0.085060 0.022041 0.514000 19 0 135
0.085623 0.022041 0.514000 19 0 135
0.086187 0.022041 0.514000 19 0 135
0.086751 0.022041 0.514000 19 0 135
0.087315 0.022041 0.514000 19 0 135
0.087879 0.022041 0.514000 19 0 135
0.088443 0.022041 0.514000 19 0 135
0.088834 0.021999 0.513000 19 0 135
0.089397 0.021999 0.513000 19 0 135
0.089960 0.021999 0.513000 19 0 135
0.090522 0.021999 0.513000 19 0 135
0.091085 0.021999 0.513000 19 0 135
0.091648 0.021999 0.513000 19 0 135
0.092211 0.021999 0.513000 19 0 135
0.092774 0.021999 0.513000 19 0 135
0.093337 0.021999 0.513000 19 0 135
0.093900 0.021999 0.513000 19 0 135
0.094462 0.021999 0.513000 19 0 135
0.095025 0.021999 0.513000 19 0 135
0.095588 0.021999 0.513000 19 0 135
0.096151 0.021999 0.513000 19 0 135
0.096714 0.021999 0.513000 19 0 135
0.097277 0.021999 0.513000 19 0 135
0.097839 0.021999 0.513000 19 0 135
0.098402 0.021999 0.513000 19 0 135
0.098965 0.021999 0.513000 19 0 135
0.099528 0.021999 0.513000 19 0 135
0.099896 0.021956 0.512000 19 0 135
0.100654 0.021999 0.513000 19 0 135
0.101216 0.021999 0.513000 19 0 135
0.101779 0.021999 0.513000 19 0 135
0.102342 0.021999 0.513000 19 0 135
0.102905 0.021999 0.513000 19 0 135
0.107732 0.022299 0.520000 19 0 135
0.108303 0.022299 0.520000 19 0 135
0.108873 0.022299 0.520000 19 0 135
0.109444 0.022299 0.520000 19 0 135
0.110226 0.022342 0.521000 19 0 135
0.110798 0.022342 0.521000 19 0 135
0.111369 0.022342 0.521000 19 0 135
0.111941 0.022342 0.521000 19 0 135
0.112512 0.022342 0.521000 19 0 135
0.113084 0.022342 0.521000 19 0 135
0.036856 0.025126 0.571000 46 26 162
0.037548 0.025170 0.572000 46 26 162
0.038176 0.025170 0.572000 46 26 162
0.038804 0.025170 0.572000 46 26 162
0.039431 0.025170 0.572000 46 26 162
0.040129 0.025214 0.573000 46 26 162
0.040757 0.025214 0.573000 46 26 162
0.041386 0.025214 0.573000 46 26 162
0.042015 0.025214 0.573000 46 26 162
0.042718 0.025258 0.574000 46 26 162
0.043348 0.025258 0.574000 46 26 162
0.043977 0.025258 0.574000 46 26 162
0.044607 0.025258 0.574000 46 26 162
0.045237 0.025258 0.574000 46 26 162
0.045867 0.025258 0.574000 46 26 162
0.046577 0.025302 0.575000 46 26 162
0.047208 0.025302 0.575000 46 26 162
0.047839 0.025302 0.575000 46 26 162
0.048470 0.025302 0.575000 46 26 162
0.049101 0.025302 0.575000 46 26 162
0.049732 0.025302 0.575000 46 26 162
0.050363 0.025302 0.575000 46 26 162
0.050994 0.025302 0.575000 46 26 162
0.051624 0.025302 0.575000 46 26 162
0.052255 0.025302 0.575000 46 26 162
0.052886 0.025302 0.575000 46 26 162
0.053517 0.025302 0.575000 46 26 162
0.054148 0.025302 0.575000 46 26 162
0.054779 0.025302 0.575000 46 26 162
0.055410 0.025302 0.575000 46 26 162
0.055943 0.025258 0.574000 46 26 162
0.056573 0.025258 0.574000 46 26 162
0.057203 0.025258 0.574000 46 26 162
0.057832 0.025258 0.574000 46 26 162
0.058489 0.023498 0.534000 46 26 162
0.061189 0.023410 0.532000 19 0 135
0.061772 0.023410 0.532000 19 0 135
0.062239 0.023366 0.531000 19 0 135
0.062821 0.023366 0.531000 19 0 135
0.063285 0.023322 0.530000 19 0 135
0.063746 0.023278 0.529000 19 0 135
0.064326 0.023278 0.529000 19 0 135
0.064906 0.023278 0.529000 19 0 135
0.065363 0.023234 0.528000 19 0 135
0.065942 0.023234 0.528000 19 0 135
0.066396 0.023190 0.527000 19 0 135
0.066974 0.023190 0.527000 19 0 135
0.067552 0.023190 0.527000 19 0 135
0.068130 0.023190 0.527000 19 0 135
0.068578 0.023146 0.526000 19 0 135
0.069155 0.023146 0.526000 19 0 135
0.069732 0.023146 0.526000 19 0 135
0.070309 0.023146 0.526000 19 0 135
0.070752 0.023102 0.525000 19 0 135
0.071328 0.023102 0.525000 19 0 135
0.071904 0.023102 0.525000 19 0 135
0.072480 0.023102 0.525000 19 0 135
0.072917 0.023058 0.524000 19 0 135
0.073491 0.023058 0.524000 19 0 135
0.073787 0.022794 0.518000 19 0 135
0.074355 0.022794 0.518000 19 0 135
0.074779 0.022750 0.517000 19 0 135
0.075346 0.022750 0.517000 19 0 135
0.075766 0.022706 0.516000 19 0 135
0.076184 0.022662 0.515000 19 0 135
0.076749 0.022662 0.515000 19 0 135
0.077315 0.022662 0.515000 19 0 135
0.077880 0.022662 0.515000 19 0 135
0.078445 0.022662 0.515000 19 0 135
0.079010 0.022662 0.515000 19 0 135
0.079420 0.022618 0.514000 19 0 135
0.079984 0.022618 0.514000 19 0 135
0.080548 0.022618 0.514000 19 0 135
0.081112 0.022618 0.514000 19 0 135
0.081676 0.022618 0.514000 19 0 135
0.082240 0.022618 0.514000 19 0 135
0.082804 0.022618 0.514000 19 0 135
0.083368 0.022618 0.514000 19 0 135
0.083932 0.022618 0.514000 19 0 135
0.084496 0.022618 0.514000 19 0 135
0.085060 0.022618 0.514000 19 0 135
0.085623 0.022618 0.514000 19 0 135
0.086020 0.022574 0.513000 19 0 135
0.086583 0.022574 0.513000 19 0 135
0.087145 0.022574 0.513000 19 0 135
0.087708 0.022574 0.513000 19 0 135
0.088271 0.022574 0.513000 19 0 135
0.088834 0.022574 0.513000 19 0 135
0.089397 0.022574 0.513000 19 0 135
0.089784 0.022530 0.512000 19 0 135
0.090346 0.022530 0.512000 19 0 135
0.090908 0.022530 0.512000 19 0 135
0.091469 0.022530 0.512000 19 0 135
0.092031 0.022530 0.512000 19 0 135
0.092593 0.022530 0.512000 19 0 135
0.093337 0.022574 0.513000 19 0 135
0.093900 0.022574 0.513000 19 0 135
0.094462 0.022574 0.513000 19 0 135
0.095025 0.022574 0.513000 19 0 135
0.095588 0.022574 0.513000 19 0 135
0.096151 0.022574 0.513000 19 0 135
0.096714 0.022574 0.513000 19 0 135
0.097277 0.022574 0.513000 19 0 135
0.097839 0.022574 0.513000 19 0 135
0.098402 0.022574 0.513000 19 0 135
0.098965 0.022574 0.513000 19 0 135
0.099528 0.022574 0.513000 19 0 135
0.099896 0.022530 0.512000 19 0 135
0.100654 0.022574 0.513000 19 0 135
0.101216 0.022574 0.513000 19 0 135
0.101779 0.022574 0.513000 19 0 135
0.102342 0.022574 0.513000 19 0 135
0.102905 0.022574 0.513000 19 0 135
0.103468 0.022574 0.513000 19 0 135
0.106956 0.022838 0.519000 19 0 135
0.108303 0.022882 0.520000 19 0 135
0.108873 0.022882 0.520000 19 0 135
0.109444 0.022882 0.520000 19 0 135
0.110014 0.022882 0.520000 19 0 135
0.110585 0.022882 0.520000 19 0 135
0.111155 0.022882 0.520000 19 0 135
0.111726 0.022882 0.520000 19 0 135
0.037483 0.025767 0.571000 46 26 162
0.038176 0.025812 0.572000 46 26 162
0.038804 0.025812 0.572000 46 26 162
0.039431 0.025812 0.572000 46 26 162
0.040059 0.025812 0.572000 46 26 162
0.040686 0.025812 0.572000 46 26 162
0.041314 0.025812 0.572000 46 26 162
0.042015 0.025857 0.573000 46 26 162
0.042643 0.025857 0.573000 46 26 162
0.043272 0.025857 0.573000 46 26 162
0.043901 0.025857 0.573000 46 26 162
0.044607 0.025902 0.574000 46 26 162
0.045237 0.025902 0.574000 46 26 162
0.045867 0.025902 0.574000 46 26 162
0.046496 0.025902 0.574000 46 26 162
0.047126 0.025902 0.574000 46 26 162
0.047756 0.025902 0.574000 46 26 162
0.048386 0.025902 0.574000 46 26 162
0.049101 0.025947 0.575000 46 26 162
0.049732 0.025947 0.575000 46 26 162
0.050363 0.025947 0.575000 46 26 162
0.050994 0.025947 0.575000 46 26 162
0.051624 0.025947 0.575000 46 26 162
0.052255 0.025947 0.575000 46 26 162
0.052886 0.025947 0.575000 46 26 162
0.053517 0.025947 0.575000 46 26 162
0.054148 0.025947 0.575000 46 26 162
0.054683 0.025902 0.574000 46 26 162
0.055313 0.025902 0.574000 46 26 162
0.055943 0.025902 0.574000 46 26 162
0.056573 0.025902 0.574000 46 26 162
0.057103 0.025857 0.573000 46 26 162
0.057732 0.025857 0.573000 46 26 162
0.058489 0.024097 0.534000 19 0 135
0.059075 0.024097 0.534000 19 0 135
0.061189 0.024007 0.532000 19 0 135
0.061772 0.024007 0.532000 19 0 135
0.062239 0.023962 0.531000 19 0 135
0.062821 0.023962 0.531000 19 0 135
0.063285 0.023917 0.530000 19 0 135
0.063866 0.023917 0.530000 19 0 135
0.064326 0.023871 0.529000 19 0 135
0.064906 0.023871 0.529000 19 0 135
0.065487 0.023871 0.529000 19 0 135
0.065942 0.023826 0.528000 19 0 135
0.066522 0.023826 0.528000 19 0 135
0.066974 0.023781 0.527000 19 0 135
0.067552 0.023781 0.527000 19 0 135
0.068130 0.023781 0.527000 19 0 135
0.068708 0.023781 0.527000 19 0 135
0.069155 0.023736 0.526000 19 0 135
0.069732 0.023736 0.526000 19 0 135
0.070309 0.023736 0.526000 19 0 135
0.070886 0.023736 0.526000 19 0 135
0.071464 0.023736 0.526000 19 0 135
0.072041 0.023736 0.526000 19 0 135
0.072480 0.023691 0.525000 19 0 135
0.073056 0.023691 0.525000 19 0 135
0.073632 0.023691 0.525000 19 0 135
0.074208 0.023691 0.525000 19 0 135
0.074641 0.023646 0.524000 19 0 135
0.074779 0.023330 0.517000 19 0 135
0.075346 0.023330 0.517000 19 0 135
0.075766 0.023285 0.516000 19 0 135
0.076184 0.023240 0.515000 19 0 135
0.076749 0.023240 0.515000 19 0 135
0.077315 0.023240 0.515000 19 0 135
0.077880 0.023240 0.515000 19 0 135
0.078445 0.023240 0.515000 19 0 135
0.078856 0.023195 0.514000 19 0 135
0.079420 0.023195 0.514000 19 0 135
0.079984 0.023195 0.514000 19 0 135
0.082240 0.023195 0.514000 19 0 135
0.082804 0.023195 0.514000 19 0 135
0.083368 0.023195 0.514000 19 0 135
0.083932 0.023195 0.514000 19 0 135
0.084331 0.023149 0.513000 19 0 135
0.084894 0.023149 0.513000 19 0 135
0.085457 0.023149 0.513000 19 0 135
0.086020 0.023149 0.513000 19 0 135
0.086583 0.023149 0.513000 19 0 135
0.087145 0.023149 0.513000 19 0 135
0.087708 0.023149 0.513000 19 0 135
0.088271 0.023149 0.513000 19 0 135
0.088834 0.023149 0.513000 19 0 135
0.089223 0.023104 0.512000 19 0 135
0.089784 0.023104 0.512000 19 0 135
0.090346 0.023104 0.512000 19 0 135
0.090908 0.023104 0.512000 19 0 135
0.091469 0.023104 0.512000 19 0 135
0.092031 0.023104 0.512000 19 0 135
0.092593 0.023104 0.512000 19 0 135
0.093155 0.023104 0.512000 19 0 135
0.093716 0.023104 0.512000 19 0 135
0.094462 0.023149 0.513000 19 0 135
0.095025 0.023149 0.513000 19 0 135
0.095588 0.023149 0.513000 19 0 135
0.096151 0.023149 0.513000 19 0 135
0.096714 0.023149 0.513000 19 0 135
0.097277 0.023149 0.513000 19 0 135
0.097839 0.023149 0.513000 19 0 135
0.098402 0.023149 0.513000 19 0 135
0.098965 0.023149 0.513000 19 0 135
0.099528 0.023149 0.513000 19 0 135
0.100091 0.023149 0.513000 19 0 135
0.100654 0.023149 0.513000 19 0 135
0.101216 0.023149 0.513000 19 0 135
0.101779 0.023149 0.513000 19 0 135
0.102542 0.023195 0.514000 19 0 135
0.103106 0.023195 0.514000 19 0 135
0.103871 0.023240 0.515000 19 0 135
0.105613 0.023375 0.518000 19 0 135
0.106386 0.023420 0.519000 19 0 135
0.106956 0.023420 0.519000 19 0 135
0.107525 0.023420 0.519000 19 0 135
0.108664 0.023420 0.519000 19 0 135
0.110014 0.023465 0.520000 19 0 135
0.110585 0.023465 0.520000 19 0 135
0.111155 0.023465 0.520000 19 0 135
0.111726 0.023465 0.520000 19 0 135
0.038109 0.026407 0.571000 46 26 162
0.038736 0.026407 0.571000 46 26 162
0.039362 0.026407 0.571000 46 26 162
0.040059 0.026453 0.572000 46 26 162
0.040686 0.026453 0.572000 46 26 162
0.041314 0.026453 0.572000 46 26 162
0.041941 0.026453 0.572000 46 26 162
0.042569 0.026453 0.572000 46 26 162
0.043272 0.026500 0.573000 46 26 162
0.043901 0.026500 0.573000 46 26 162
0.044529 0.026500 0.573000 46 26 162
0.045158 0.026500 0.573000 46 26 162
0.045787 0.026500 0.573000 46 26 162
0.046415 0.026500 0.573000 46 26 162
0.047126 0.026546 0.574000 46 26 162
0.047756 0.026546 0.574000 46 26 162
0.048386 0.026546 0.574000 46 26 162
0.049016 0.026546 0.574000 46 26 162
0.049732 0.026592 0.575000 46 26 162
0.050363 0.026592 0.575000 46 26 162
0.050994 0.026592 0.575000 46 26 162
0.051624 0.026592 0.575000 46 26 162
0.052255 0.026592 0.575000 46 26 162
0.052886 0.026592 0.575000 46 26 162
0.053517 0.026592 0.575000 46 26 162
0.054054 0.026546 0.574000 46 26 162
0.054683 0.026546 0.574000 46 26 162
0.055313 0.026546 0.574000 46 26 162
0.055846 0.026500 0.573000 46 26 162
0.056474 0.026500 0.573000 46 26 162
0.057103 0.026500 0.573000 46 26 162
0.057732 0.026500 0.573000 46 26 162
0.057903 0.024696 0.534000 46 26 162
0.058489 0.024696 0.534000 46 26 162
0.059075 0.024696 0.534000 19 0 135
0.059661 0.024696 0.534000 19 0 135
0.060247 0.024696 0.534000 19 0 135
0.060719 0.024650 0.533000 19 0 135
0.061304 0.024650 0.533000 19 0 135
0.061772 0.024604 0.532000 19 0 135
0.062356 0.024604 0.532000 19 0 135
0.062821 0.024557 0.531000 19 0 135
0.063404 0.024557 0.531000 19 0 135
0.063866 0.024511 0.530000 19 0 135
0.064448 0.024511 0.530000 19 0 135
0.064906 0.024465 0.529000 19 0 135
0.065487 0.024465 0.529000 19 0 135
0.066067 0.024465 0.529000 19 0 135
0.066522 0.024419 0.528000 19 0 135
0.067101 0.024419 0.528000 19 0 135
0.067680 0.024419 0.528000 19 0 135
0.068130 0.024372 0.527000 19 0 135
0.068708 0.024372 0.527000 19 0 135
0.069287 0.024372 0.527000 19 0 135
0.069865 0.024372 0.527000 19 0 135
0.070309 0.024326 0.526000 19 0 135
0.070886 0.024326 0.526000 19 0 135
0.071464 0.024326 0.526000 19 0 135
0.072041 0.024326 0.526000 19 0 135
0.072618 0.024326 0.526000 19 0 135
0.073195 0.024326 0.526000 19 0 135
0.073772 0.024326 0.526000 19 0 135
0.074349 0.024326 0.526000 19 0 135
0.076898 0.023864 0.516000 19 0 135
0.082240 0.023771 0.514000 19 0 135
0.082804 0.023771 0.514000 19 0 135
0.083206 0.023725 0.513000 19 0 135
0.083768 0.023725 0.513000 19 0 135
0.084331 0.023725 0.513000 19 0 135
0.084894 0.023725 0.513000 19 0 135
0.085457 0.023725 0.513000 19 0 135
0.086020 0.023725 0.513000 19 0 135
0.086414 0.023679 0.512000 19 0 135
0.087145 0.023725 0.513000 19 0 135
0.087537 0.023679 0.512000 19 0 135
0.088099 0.023679 0.512000 19 0 135
0.088661 0.023679 0.512000 19 0 135
0.089223 0.023679 0.512000 19 0 135
0.089784 0.023679 0.512000 19 0 135
0.090346 0.023679 0.512000 19 0 135
0.090908 0.023679 0.512000 19 0 135
0.091469 0.023679 0.512000 19 0 135
0.092031 0.023679 0.512000 19 0 135
0.092593 0.023679 0.512000 19 0 135
0.093155 0.023679 0.512000 19 0 135
0.093716 0.023679 0.512000 19 0 135
0.094462 0.023725 0.513000 19 0 135
0.095025 0.023725 0.513000 19 0 135
0.095588 0.023725 0.513000 19 0 135
0.096151 0.023725 0.513000 19 0 135
0.096714 0.023725 0.513000 19 0 135
0.097277 0.023725 0.513000 19 0 135
0.097839 0.023725 0.513000 19 0 135
0.098402 0.023725 0.513000 19 0 135
0.098965 0.023725 0.513000 19 0 135
0.099528 0.023725 0.513000 19 0 135
0.100091 0.023725 0.513000 19 0 135
0.100654 0.023725 0.513000 19 0 135
0.101216 0.023725 0.513000 19 0 135
0.101779 0.023725 0.513000 19 0 135
0.102542 0.023771 0.514000 19 0 135
0.103106 0.023771 0.514000 19 0 135
0.103871 0.023817 0.515000 19 0 135
0.104639 0.023864 0.516000 19 0 135
0.105613 0.023956 0.518000 19 0 135
0.106181 0.023956 0.518000 19 0 135
0.106750 0.023956 0.518000 19 0 135
0.107525 0.024002 0.519000 19 0 135
0.108095 0.024002 0.519000 19 0 135
0.108664 0.024002 0.519000 19 0 135
0.109233 0.024002 0.519000 19 0 135
0.109803 0.024002 0.519000 19 0 135
0.110585 0.024049 0.520000 19 0 135
0.111155 0.024049 0.520000 19 0 135
0.111511 0.024002 0.519000 19 0 135
0.038736 0.027048 0.571000 46 26 162
0.039362 0.027048 0.571000 46 26 162
0.039989 0.027048 0.571000 46 26 162
0.040615 0.027048 0.571000 46 26 162
0.041314 0.027095 0.572000 46 26 162
0.041941 0.027095 0.572000 46 26 162
0.042569 0.027095 0.572000 46 26 162
0.043197 0.027095 0.572000 46 26 162
0.043824 0.027095 0.572000 46 26 162
0.044452 0.027095 0.572000 46 26 162
0.045079 0.027095 0.572000 46 26 162
0.045787 0.027142 0.573000 46 26 162
0.046415 0.027142 0.573000 46 26 162
0.047044 0.027142 0.573000 46 26 162
0.047673 0.027142 0.573000 46 26 162
0.048386 0.027190 0.574000 46 26 162
0.049016 0.027190 0.574000 46 26 162
0.049645 0.027190 0.574000 46 26 162
0.050275 0.027190 0.574000 46 26 162
0.050905 0.027190 0.574000 46 26 162
0.051624 0.027237 0.575000 46 26 162
0.052255 0.027237 0.575000 46 26 162
0.052886 0.027237 0.575000 46 26 162
0.053424 0.027190 0.574000 46 26 162
0.054054 0.027190 0.574000 46 26 162
0.054588 0.027142 0.573000 46 26 162
0.055217 0.027142 0.573000 46 26 162
0.055846 0.027142 0.573000 46 26 162
0.056474 0.027142 0.573000 46 26 162
0.057103 0.027142 0.573000 46 26 162
0.057732 0.027142 0.573000 46 26 162
0.059075 0.025295 0.534000 19 0 135
0.059661 0.025295 0.534000 19 0 135
0.060247 0.025295 0.534000 19 0 135
0.060719 0.025248 0.533000 19 0 135
0.061304 0.025248 0.533000 19 0 135
0.061888 0.025248 0.533000 19 0 135
0.062356 0.025200 0.532000 19 0 135
0.062940 0.025200 0.532000 19 0 135
0.063404 0.025153 0.531000 19 0 135
0.063987 0.025153 0.531000 19 0 135
0.064448 0.025106 0.530000 19 0 135
0.065029 0.025106 0.530000 19 0 135
0.065611 0.025106 0.530000 19 0 135
0.066067 0.025058 0.529000 19 0 135
0.066648 0.025058 0.529000 19 0 135
0.067101 0.025011 0.528000 19 0 135
0.067680 0.025011 0.528000 19 0 135
0.068259 0.025011 0.528000 19 0 135
0.068708 0.024963 0.527000 19 0 135
0.069287 0.024963 0.527000 19 0 135
0.069865 0.024963 0.527000 19 0 135
0.070443 0.024963 0.527000 19 0 135
0.071021 0.024963 0.527000 19 0 135
0.071599 0.024963 0.527000 19 0 135
0.072041 0.024916 0.526000 19 0 135
0.072618 0.024916 0.526000 19 0 135
0.073195 0.024916 0.526000 19 0 135
0.073772 0.024916 0.526000 19 0 135
0.082804 0.024348 0.514000 19 0 135
0.083368 0.024348 0.514000 19 0 135
0.083768 0.024300 0.513000 19 0 135
0.084331 0.024300 0.513000 19 0 135
0.084894 0.024300 0.513000 19 0 135
0.085457 0.024300 0.513000 19 0 135
0.086020 0.024300 0.513000 19 0 135
0.086583 0.024300 0.513000 19 0 135
0.086976 0.024253 0.512000 19 0 135
0.087537 0.024253 0.512000 19 0 135
0.088099 0.024253 0.512000 19 0 135
0.088661 0.024253 0.512000 19 0 135
0.089223 0.024253 0.512000 19 0 135
0.089784 0.024253 0.512000 19 0 135
0.090346 0.024253 0.512000 19 0 135
0.090908 0.024253 0.512000 19 0 135
0.091469 0.024253 0.512000 19 0 135
0.092031 0.024253 0.512000 19 0 135
0.092593 0.024253 0.512000 19 0 135
0.093155 0.024253 0.512000 19 0 135
0.093900 0.024300 0.513000 19 0 135
0.094278 0.024253 0.512000 19 0 135
0.095025 0.024300 0.513000 19 0 135
0.095588 0.024300 0.513000 19 0 135
0.096151 0.024300 0.513000 19 0 135
0.096714 0.024300 0.513000 19 0 135
0.097277 0.024300 0.513000 19 0 135
0.097839 0.024300 0.513000 19 0 135
0.098402 0.024300 0.513000 19 0 135
0.098965 0.024300 0.513000 19 0 135
0.099528 0.024300 0.513000 19 0 135
0.100286 0.024348 0.514000 19 0 135
0.100850 0.024348 0.514000 19 0 135
0.101414 0.024348 0.514000 19 0 135
0.101978 0.024348 0.514000 19 0 135
0.102542 0.024348 0.514000 19 0 135
0.103306 0.024395 0.515000 19 0 135
0.104073 0.024442 0.516000 19 0 135
0.104842 0.024490 0.517000 19 0 135
0.105409 0.024490 0.517000 19 0 135
0.106181 0.024537 0.518000 19 0 135
0.106750 0.024537 0.518000 19 0 135
0.107318 0.024537 0.518000 19 0 135
0.108095 0.024584 0.519000 19 0 135
0.108664 0.024584 0.519000 19 0 135
0.109233 0.024584 0.519000 19 0 135
0.109803 0.024584 0.519000 19 0 135
0.110372 0.024584 0.519000 19 0 135
0.110942 0.024584 0.519000 19 0 135
0.111511 0.024584 0.519000 19 0 135
0.039362 0.027688 0.571000 46 26 162
0.039989 0.027688 0.571000 46 26 162
0.040615 0.027688 0.571000 46 26 162
0.041242 0.027688 0.571000 46 26 162
0.041868 0.027688 0.571000 46 26 162
0.042495 0.027688 0.571000 46 26 162
0.043121 0.027688 0.571000 46 26 162
0.044452 0.027737 0.572000 46 26 162
0.045079 0.027737 0.572000 46 26 162
0.045707 0.027737 0.572000 46 26 162
0.046334 0.027737 0.572000 46 26 162
0.047044 0.027785 0.573000 46 26 162
0.047673 0.027785 0.573000 46 26 162
0.048301 0.027785 0.573000 46 26 162
0.049016 0.027834 0.574000 46 26 162
0.049645 0.027834 0.574000 46 26 162
0.050275 0.027834 0.574000 46 26 162
0.050905 0.027834 0.574000 46 26 162
0.051535 0.027834 0.574000 46 26 162
0.052164 0.027834 0.574000 46 26 162
0.052794 0.027834 0.574000 46 26 162
0.053424 0.027834 0.574000 46 26 162
0.054054 0.027834 0.574000 46 26 162
0.054588 0.027785 0.573000 46 26 162
0.055217 0.027785 0.573000 46 26 162
0.055846 0.027785 0.573000 46 26 162
0.056474 0.027785 0.573000 46 26 162
0.057003 0.027737 0.572000 46 26 162
0.057631 0.027737 0.572000 46 26 162
0.058012 0.025942 0.535000 46 26 162
0.058599 0.025942 0.535000 46 26 162
0.059075 0.025894 0.534000 19 0 135
0.059661 0.025894 0.534000 19 0 135
0.060247 0.025894 0.534000 19 0 135
0.060719 0.025846 0.533000 19 0 135
0.061304 0.025846 0.533000 19 0 135
0.061888 0.025846 0.533000 19 0 135
0.062356 0.025797 0.532000 19 0 135
0.062940 0.025797 0.532000 19 0 135
0.063523 0.025797 0.532000 19 0 135
0.063987 0.025749 0.531000 19 0 135
0.064569 0.025749 0.531000 19 0 135
0.065029 0.025700 0.530000 19 0 135
0.065611 0.025700 0.530000 19 0 135
0.066067 0.025652 0.529000 19 0 135
0.066648 0.025652 0.529000 19 0 135
0.067228 0.025652 0.529000 19 0 135
0.067680 0.025603 0.528000 19 0 135
0.068259 0.025603 0.528000 19 0 135
0.068839 0.025603 0.528000 19 0 135
0.069287 0.025555 0.527000 19 0 135
0.069865 0.025555 0.527000 19 0 135
0.070443 0.025555 0.527000 19 0 135
0.071021 0.025555 0.527000 19 0 135
0.071599 0.025555 0.527000 19 0 135
0.072041 0.025506 0.526000 19 0 135
0.072618 0.025506 0.526000 19 0 135
0.073195 0.025506 0.526000 19 0 135
0.073632 0.025458 0.525000 19 0 135
0.083368 0.024924 0.514000 19 0 135
0.083768 0.024876 0.513000 19 0 135
0.084331 0.024876 0.513000 19 0 135
0.084894 0.024876 0.513000 19 0 135
0.085457 0.024876 0.513000 19 0 135
0.086020 0.024876 0.513000 19 0 135
0.086583 0.024876 0.513000 19 0 135
0.086976 0.024827 0.512000 19 0 135
0.087537 0.024827 0.512000 19 0 135
0.088099 0.024827 0.512000 19 0 135
0.088661 0.024827 0.512000 19 0 135
0.089223 0.024827 0.512000 19 0 135
0.089784 0.024827 0.512000 19 0 135
0.090346 0.024827 0.512000 19 0 135
0.090908 0.024827 0.512000 19 0 135
0.091469 0.024827 0.512000 19 0 135
0.092031 0.024827 0.512000 19 0 135
0.092593 0.024827 0.512000 19 0 135
0.093337 0.024876 0.513000 19 0 135
0.093900 0.024876 0.513000 19 0 135
0.094462 0.024876 0.513000 19 0 135
0.095025 0.024876 0.513000 19 0 135
0.095774 0.024924 0.514000 19 0 135
0.096338 0.024924 0.514000 19 0 135
0.096902 0.024924 0.514000 19 0 135
0.097466 0.024924 0.514000 19 0 135
0.098030 0.024924 0.514000 19 0 135
0.098402 0.024876 0.513000 19 0 135
0.099158 0.024924 0.514000 19 0 135
0.099722 0.024924 0.514000 19 0 135
0.100286 0.024924 0.514000 19 0 135
0.100850 0.024924 0.514000 19 0 135
0.101414 0.024924 0.514000 19 0 135
0.102176 0.024973 0.515000 19 0 135
0.102741 0.024973 0.515000 19 0 135
0.103507 0.025021 0.516000 19 0 135
0.104073 0.025021 0.516000 19 0 135
0.104842 0.025070 0.517000 19 0 135
0.105409 0.025070 0.517000 19 0 135
0.106181 0.025118 0.518000 19 0 135
0.106750 0.025118 0.518000 19 0 135
0.107318 0.025118 0.518000 19 0 135
0.107886 0.025118 0.518000 19 0 135
0.108664 0.025167 0.519000 19 0 135
0.109233 0.025167 0.519000 19 0 135
0.109803 0.025167 0.519000 19 0 135
0.110372 0.025167 0.519000 19 0 135
0.110942 0.025167 0.519000 19 0 135
0.111511 0.025167 0.519000 19 0 135
0.039989 0.028329 0.571000 46 26 162
0.040615 0.028329 0.571000 46 26 162
0.041242 0.028329 0.571000 46 26 162
0.041868 0.028329 0.571000 46 26 162
0.042495 0.028329 0.571000 46 26 162
0.043121 0.028329 0.571000 46 26 162
0.043748 0.028329 0.571000 46 26 162
0.044374 0.028329 0.571000 46 26 162
0.045000 0.028329 0.571000 46 26 162
0.046334 0.028378 0.572000 46 26 162
0.046962 0.028378 0.572000 46 26 162
0.048301 0.028428 0.573000 46 26 162
0.048930 0.028428 0.573000 46 26 162
0.049645 0.028477 0.574000 46 26 162
0.050275 0.028477 0.574000 46 26 162
0.050905 0.028477 0.574000 46 26 162
0.051535 0.028477 0.574000 46 26 162
0.052164 0.028477 0.574000 46 26 162
0.052794 0.028477 0.574000 46 26 162
0.053424 0.028477 0.574000 46 26 162
0.054054 0.028477 0.574000 46 26 162
0.054588 0.028428 0.573000 46 26 162
0.055217 0.028428 0.573000 46 26 162
0.055846 0.028428 0.573000 46 26 162
0.056474 0.028428 0.573000 46 26 162
0.057003 0.028378 0.572000 46 26 162
0.057631 0.028378 0.572000 46 26 162
0.057425 0.026543 0.535000 46 26 162
0.058012 0.026543 0.535000 46 26 162
0.058599 0.026543 0.535000 19 0 135
0.059075 0.026493 0.534000 19 0 135
0.059661 0.026493 0.534000 19 0 135
0.060247 0.026493 0.534000 19 0 135
0.060719 0.026443 0.533000 19 0 135
0.061304 0.026443 0.533000 19 0 135
0.061888 0.026443 0.533000 19 0 135
0.062356 0.026394 0.532000 19 0 135
0.062940 0.026394 0.532000 19 0 135
0.063404 0.026344 0.531000 19 0 135
0.063987 0.026344 0.531000 19 0 135
0.064569 0.026344 0.531000 19 0 135
0.065029 0.026295 0.530000 19 0 135
0.065611 0.026295 0.530000 19 0 135
0.066192 0.026295 0.530000 19 0 135
0.066774 0.026295 0.530000 19 0 135
0.067228 0.026245 0.529000 19 0 135
0.067808 0.026245 0.529000 19 0 135
0.068259 0.026195 0.528000 19 0 135
0.068839 0.026195 0.528000 19 0 135
0.069287 0.026146 0.527000 19 0 135
0.069865 0.026146 0.527000 19 0 135
0.070443 0.026146 0.527000 19 0 135
0.071021 0.026146 0.527000 19 0 135
0.071599 0.026146 0.527000 19 0 135
0.072041 0.026096 0.526000 19 0 135
0.072480 0.026046 0.525000 19 0 135
0.073056 0.026046 0.525000 19 0 135
0.073491 0.025997 0.524000 19 0 135
0.082804 0.025501 0.514000 19 0 135
0.083368 0.025501 0.514000 19 0 135
0.083768 0.025451 0.513000 19 0 135
0.085457 0.025451 0.513000 19 0 135
0.086020 0.025451 0.513000 19 0 135
0.086414 0.025402 0.512000 19 0 135
0.086976 0.025402 0.512000 19 0 135
0.087537 0.025402 0.512000 19 0 135
0.088099 0.025402 0.512000 19 0 135
0.088661 0.025402 0.512000 19 0 135
0.089223 0.025402 0.512000 19 0 135
0.089784 0.025402 0.512000 19 0 135
0.090346 0.025402 0.512000 19 0 135
0.090908 0.025402 0.512000 19 0 135
0.091469 0.025402 0.512000 19 0 135
0.092211 0.025451 0.513000 19 0 135
0.092774 0.025451 0.513000 19 0 135
0.093337 0.025451 0.513000 19 0 135
0.094083 0.025501 0.514000 19 0 135
0.094646 0.025501 0.514000 19 0 135
0.095210 0.025501 0.514000 19 0 135
0.095774 0.025501 0.514000 19 0 135
0.096338 0.025501 0.514000 19 0 135
0.096902 0.025501 0.514000 19 0 135
0.097466 0.025501 0.514000 19 0 135
0.098030 0.025501 0.514000 19 0 135
0.098594 0.025501 0.514000 19 0 135
0.099158 0.025501 0.514000 19 0 135
0.099916 0.025550 0.515000 19 0 135
0.100286 0.025501 0.514000 19 0 135
0.101046 0.025550 0.515000 19 0 135
0.101611 0.025550 0.515000 19 0 135
0.102176 0.025550 0.515000 19 0 135
0.102941 0.025600 0.516000 19 0 135
0.103507 0.025600 0.516000 19 0 135
0.104073 0.025600 0.516000 19 0 135
0.104842 0.025650 0.517000 19 0 135
0.105409 0.025650 0.517000 19 0 135
0.106181 0.025699 0.518000 19 0 135
0.106750 0.025699 0.518000 19 0 135
0.107318 0.025699 0.518000 19 0 135
0.107886 0.025699 0.518000 19 0 135
0.108455 0.025699 0.518000 19 0 135
0.109233 0.025749 0.519000 19 0 135
0.109803 0.025749 0.519000 19 0 135
0.110372 0.025749 0.519000 19 0 135
0.110942 0.025749 0.519000 19 0 135
0.111511 0.025749 0.519000 19 0 135
0.040615 0.028969 0.571000 46 26 162
0.041242 0.028969 0.571000 46 26 162
0.041868 0.028969 0.571000 46 26 162
0.042495 0.028969 0.571000 46 26 162
0.043121 0.028969 0.571000 46 26 162
0.043748 0.028969 0.571000 46 26 162
0.044374 0.028969 0.571000 46 26 162
0.045000 0.028969 0.571000 46 26 162
0.045627 0.028969 0.571000 46 26 162
0.046334 0.029020 0.572000 46 26 162
0.046962 0.029020 0.572000 46 26 162
0.048301 0.029071 0.573000 46 26 162
0.048930 0.029071 0.573000 46 26 162
0.049559 0.029071 0.573000 46 26 162
0.050275 0.029121 0.574000 46 26 162
0.050905 0.029121 0.574000 46 26 162
0.051535 0.029121 0.574000 46 26 162
0.052164 0.029121 0.574000 46 26 162
0.052794 0.029121 0.574000 46 26 162
0.053424 0.029121 0.574000 46 26 162
0.054054 0.029121 0.574000 46 26 162
0.054588 0.029071 0.573000 46 26 162
0.055217 0.029071 0.573000 46 26 162
0.055846 0.029071 0.573000 46 26 162
0.056376 0.029020 0.572000 46 26 162
0.057003 0.029020 0.572000 46 26 162
0.057425 0.027143 0.535000 46 26 162
0.058012 0.027143 0.535000 46 26 162
0.058599 0.027143 0.535000 19 0 135
0.059186 0.027143 0.535000 19 0 135
0.059661 0.027092 0.534000 19 0 135
0.060247 0.027092 0.534000 19 0 135
0.060833 0.027092 0.534000 19 0 135
0.061304 0.027041 0.533000 19 0 135
0.061888 0.027041 0.533000 19 0 135
0.062473 0.027041 0.533000 19 0 135
0.062940 0.026991 0.532000 19 0 135
0.063523 0.026991 0.532000 19 0 135
0.064107 0.026991 0.532000 19 0 135
0.064569 0.026940 0.531000 19 0 135
0.065152 0.026940 0.531000 19 0 135
0.065734 0.026940 0.531000 19 0 135
0.066192 0.026889 0.530000 19 0 135
0.066774 0.026889 0.530000 19 0 135
0.067355 0.026889 0.530000 19 0 135
0.067808 0.026838 0.529000 19 0 135
0.068389 0.026838 0.529000 19 0 135
0.068839 0.026788 0.528000 19 0 135
0.069418 0.026788 0.528000 19 0 135
0.069997 0.026788 0.528000 19 0 135
0.070443 0.026737 0.527000 19 0 135
0.071021 0.026737 0.527000 19 0 135
0.071464 0.026686 0.526000 19 0 135
0.072917 0.026585 0.524000 19 0 135
0.073351 0.026534 0.523000 19 0 135
0.073784 0.026483 0.522000 19 0 135
0.086414 0.025976 0.512000 19 0 135
0.086976 0.025976 0.512000 19 0 135
0.087537 0.025976 0.512000 19 0 135
0.088099 0.025976 0.512000 19 0 135
0.088661 0.025976 0.512000 19 0 135
0.089223 0.025976 0.512000 19 0 135
0.089784 0.025976 0.512000 19 0 135
0.090346 0.025976 0.512000 19 0 135
0.090908 0.025976 0.512000 19 0 135
0.091648 0.026027 0.513000 19 0 135
0.092211 0.026027 0.513000 19 0 135
0.092774 0.026027 0.513000 19 0 135
0.093519 0.026077 0.514000 19 0 135
0.094083 0.026077 0.514000 19 0 135
0.094831 0.026128 0.515000 19 0 135
0.095396 0.026128 0.515000 19 0 135
0.095961 0.026128 0.515000 19 0 135
0.096526 0.026128 0.515000 19 0 135
0.097091 0.026128 0.515000 19 0 135
0.097656 0.026128 0.515000 19 0 135
0.098221 0.026128 0.515000 19 0 135
0.098786 0.026128 0.515000 19 0 135
0.099351 0.026128 0.515000 19 0 135
0.099916 0.026128 0.515000 19 0 135
0.100481 0.026128 0.515000 19 0 135
0.101046 0.026128 0.515000 19 0 135
0.101611 0.026128 0.515000 19 0 135
0.102375 0.026179 0.516000 19 0 135
0.102941 0.026179 0.516000 19 0 135
0.103507 0.026179 0.516000 19 0 135
0.104275 0.026229 0.517000 19 0 135
0.104842 0.026229 0.517000 19 0 135
0.105409 0.026229 0.517000 19 0 135
0.105976 0.026229 0.517000 19 0 135
0.106750 0.026280 0.518000 19 0 135
0.107318 0.026280 0.518000 19 0 135
0.107886 0.026280 0.518000 19 0 135
0.108455 0.026280 0.518000 19 0 135
0.109023 0.026280 0.518000 19 0 135
0.109591 0.026280 0.518000 19 0 135
0.110372 0.026331 0.519000 19 0 135
0.110942 0.026331 0.519000 19 0 135
0.111511 0.026331 0.519000 19 0 135
0.041242 0.029610 0.571000 46 26 162
0.041795 0.029558 0.570000 46 26 162
0.042495 0.029610 0.571000 46 26 162
0.043121 0.029610 0.571000 46 26 162
0.043748 0.029610 0.571000 46 26 162
0.044374 0.029610 0.571000 46 26 162
0.045000 0.029610 0.571000 46 26 162
0.045627 0.029610 0.571000 46 26 162
0.046334 0.029661 0.572000 46 26 162
0.046962 0.029661 0.572000 46 26 162
0.047590 0.029661 0.572000 46 26 162
0.048930 0.029713 0.573000 46 26 162
0.049559 0.029713 0.573000 46 26 162
0.050275 0.029765 0.574000 46 26 162
0.050905 0.029765 0.574000 46 26 162
0.051535 0.029765 0.574000 46 26 162
0.052164 0.029765 0.574000 46 26 162
0.052794 0.029765 0.574000 46 26 162
0.053424 0.029765 0.574000 46 26 162
0.053960 0.029713 0.573000 46 26 162
0.054588 0.029713 0.573000 46 26 162
0.055217 0.029713 0.573000 46 26 162
0.055846 0.029713 0.573000 46 26 162
0.056474 0.029713 0.573000 46 26 162
0.057003 0.029661 0.572000 46 26 162
0.056944 0.027795 0.536000 46 26 162
0.057425 0.027743 0.535000 46 26 162
0.058012 0.027743 0.535000 19 0 135
0.058599 0.027743 0.535000 19 0 135
0.059186 0.027743 0.535000 19 0 135
0.059661 0.027691 0.534000 19 0 135
0.060247 0.027691 0.534000 19 0 135
0.060833 0.027691 0.534000 19 0 135
0.061419 0.027691 0.534000 19 0 135
0.061888 0.027639 0.533000 19 0 135
0.062473 0.027639 0.533000 19 0 135
0.062940 0.027587 0.532000 19 0 135
0.063523 0.027587 0.532000 19 0 135
0.064107 0.027587 0.532000 19 0 135
0.064569 0.027535 0.531000 19 0 135
0.065152 0.027535 0.531000 19 0 135
0.065734 0.027535 0.531000 19 0 135
0.066317 0.027535 0.531000 19 0 135
0.066774 0.027484 0.530000 19 0 135
0.067355 0.027484 0.530000 19 0 135
0.067937 0.027484 0.530000 19 0 135
0.068389 0.027432 0.529000 19 0 135
0.068969 0.027432 0.529000 19 0 135
0.069550 0.027432 0.529000 19 0 135
0.069997 0.027380 0.528000 19 0 135
0.070577 0.027380 0.528000 19 0 135
0.071021 0.027328 0.527000 19 0 135
0.071328 0.027224 0.525000 19 0 135
0.072777 0.027121 0.523000 19 0 135
0.073071 0.027017 0.521000 19 0 135
0.073642 0.027017 0.521000 19 0 135
0.074071 0.026965 0.520000 19 0 135
0.074642 0.026965 0.520000 19 0 135
0.075213 0.026965 0.520000 19 0 135
0.075783 0.026965 0.520000 19 0 135
0.076207 0.026913 0.519000 19 0 135
0.082400 0.026706 0.515000 19 0 135
0.082804 0.026654 0.514000 19 0 135
0.083368 0.026654 0.514000 19 0 135
0.083768 0.026602 0.513000 19 0 135
0.084331 0.026602 0.513000 19 0 135
0.086414 0.026550 0.512000 19 0 135
0.086976 0.026550 0.512000 19 0 135
0.087537 0.026550 0.512000 19 0 135
0.088099 0.026550 0.512000 19 0 135
0.088661 0.026550 0.512000 19 0 135
0.089223 0.026550 0.512000 19 0 135
0.089784 0.026550 0.512000 19 0 135
0.090522 0.026602 0.513000 19 0 135
0.091085 0.026602 0.513000 19 0 135
0.091648 0.026602 0.513000 19 0 135
0.092211 0.026602 0.513000 19 0 135
0.092955 0.026654 0.514000 19 0 135
0.093519 0.026654 0.514000 19 0 135
0.094266 0.026706 0.515000 19 0 135
0.094831 0.026706 0.515000 19 0 135
0.095396 0.026706 0.515000 19 0 135
0.096147 0.026758 0.516000 19 0 135
0.096713 0.026758 0.516000 19 0 135
0.097279 0.026758 0.516000 19 0 135
0.097845 0.026758 0.516000 19 0 135
0.098221 0.026706 0.515000 19 0 135
0.098786 0.026706 0.515000 19 0 135
0.099351 0.026706 0.515000 19 0 135
0.099916 0.026706 0.515000 19 0 135
0.100481 0.026706 0.515000 19 0 135
0.101242 0.026758 0.516000 19 0 135
0.101808 0.026758 0.516000 19 0 135
0.102375 0.026758 0.516000 19 0 135
0.102941 0.026758 0.516000 19 0 135
0.103507 0.026758 0.516000 19 0 135
0.104275 0.026809 0.517000 19 0 135
0.104842 0.026809 0.517000 19 0 135
0.105409 0.026809 0.517000 19 0 135
0.105976 0.026809 0.517000 19 0 135
0.106750 0.026861 0.518000 19 0 135
0.107318 0.026861 0.518000 19 0 135
0.107886 0.026861 0.518000 19 0 135
0.108455 0.026861 0.518000 19 0 135
0.109023 0.026861 0.518000 19 0 135
0.109591 0.026861 0.518000 19 0 135
0.110160 0.026861 0.518000 19 0 135
0.110728 0.026861 0.518000 19 0 135
0.111511 0.026913 0.519000 19 0 135
0.041868 0.030250 0.571000 46 26 162
0.042495 0.030250 0.571000 46 26 162
0.043121 0.030250 0.571000 46 26 162
0.043748 0.030250 0.571000 46 26 162
0.044374 0.030250 0.571000 46 26 162
0.045000 0.030250 0.571000 46 26 162
0.045627 0.030250 0.571000 46 26 162
0.046253 0.030250 0.571000 46 26 162
0.046962 0.030303 0.572000 46 26 162
0.047590 0.030303 0.572000 46 26 162
0.048217 0.030303 0.572000 46 26 162
0.049559 0.030356 0.573000 46 26 162
0.050187 0.030356 0.573000 46 26 162
0.050816 0.030356 0.573000 46 26 162
0.051535 0.030409 0.574000 46 26 162
0.052164 0.030409 0.574000 46 26 162
0.052794 0.030409 0.574000 46 26 162
0.053331 0.030356 0.573000 46 26 162
0.053960 0.030356 0.573000 46 26 162
0.054588 0.030356 0.573000 46 26 162
0.055217 0.030356 0.573000 46 26 162
0.055846 0.030356 0.573000 46 26 162
0.056376 0.030303 0.572000 46 26 162
0.057003 0.030303 0.572000 46 26 162
0.056944 0.028396 0.536000 46 26 162
0.057532 0.028396 0.536000 46 26 162
0.058012 0.028343 0.535000 19 0 135
0.058599 0.028343 0.535000 19 0 135
0.059186 0.028343 0.535000 19 0 135
0.059773 0.028343 0.535000 19 0 135
0.060247 0.028290 0.534000 19 0 135
0.060833 0.028290 0.534000 19 0 135
0.061419 0.028290 0.534000 19 0 135
0.061888 0.028237 0.533000 19 0 135
0.062473 0.028237 0.533000 19 0 135
0.062940 0.028184 0.532000 19 0 135
0.063523 0.028184 0.532000 19 0 135
0.064107 0.028184 0.532000 19 0 135
0.064691 0.028184 0.532000 19 0 135
0.065152 0.028131 0.531000 19 0 135
0.065734 0.028131 0.531000 19 0 135
0.066317 0.028131 0.531000 19 0 135
0.066900 0.028131 0.531000 19 0 135
0.067355 0.028078 0.530000 19 0 135
0.067937 0.028078 0.530000 19 0 135
0.068518 0.028078 0.530000 19 0 135
0.069099 0.028078 0.530000 19 0 135
0.069550 0.028025 0.529000 19 0 135
0.070130 0.028025 0.529000 19 0 135
0.070577 0.027972 0.528000 19 0 135
0.071021 0.027919 0.527000 19 0 135
0.072204 0.027707 0.523000 19 0 135
0.072499 0.027601 0.521000 19 0 135
0.073071 0.027601 0.521000 19 0 135
0.073501 0.027548 0.520000 19 0 135
0.074071 0.027548 0.520000 19 0 135
0.074642 0.027548 0.520000 19 0 135
0.075213 0.027548 0.520000 19 0 135
0.075637 0.027495 0.519000 19 0 135
0.076207 0.027495 0.519000 19 0 135
0.076776 0.027495 0.519000 19 0 135
0.077346 0.027495 0.519000 19 0 135
0.077915 0.027495 0.519000 19 0 135
0.078333 0.027442 0.518000 19 0 135
0.079470 0.027442 0.518000 19 0 135
0.079884 0.027389 0.517000 19 0 135
0.080451 0.027389 0.517000 19 0 135
0.080861 0.027336 0.516000 19 0 135
0.081428 0.027336 0.516000 19 0 135
0.081835 0.027283 0.515000 19 0 135
0.082400 0.027283 0.515000 19 0 135
0.082804 0.027230 0.514000 19 0 135
0.083368 0.027230 0.514000 19 0 135
0.083932 0.027230 0.514000 19 0 135
0.084331 0.027177 0.513000 19 0 135
0.084894 0.027177 0.513000 19 0 135
0.085457 0.027177 0.513000 19 0 135
0.086020 0.027177 0.513000 19 0 135
0.086583 0.027177 0.513000 19 0 135
0.086976 0.027124 0.512000 19 0 135
0.087537 0.027124 0.512000 19 0 135
0.088099 0.027124 0.512000 19 0 135
0.088661 0.027124 0.512000 19 0 135
0.089397 0.027177 0.513000 19 0 135
0.089960 0.027177 0.513000 19 0 135
0.090522 0.027177 0.513000 19 0 135
0.091085 0.027177 0.513000 19 0 135
0.091827 0.027230 0.514000 19 0 135
0.092391 0.027230 0.514000 19 0 135
0.092955 0.027230 0.514000 19 0 135
0.093701 0.027283 0.515000 19 0 135
0.094266 0.027283 0.515000 19 0 135
0.094831 0.027283 0.515000 19 0 135
0.095766 0.027389 0.517000 19 0 135
0.096333 0.027389 0.517000 19 0 135
0.096901 0.027389 0.517000 19 0 135
0.097845 0.027336 0.516000 19 0 135
0.098412 0.027336 0.516000 19 0 135
0.098978 0.027336 0.516000 19 0 135
0.099544 0.027336 0.516000 19 0 135
0.100110 0.027336 0.516000 19 0 135
0.100676 0.027336 0.516000 19 0 135
0.101242 0.027336 0.516000 19 0 135
0.101808 0.027336 0.516000 19 0 135
0.102375 0.027336 0.516000 19 0 135
0.102941 0.027336 0.516000 19 0 135
0.103707 0.027389 0.517000 19 0 135
0.104275 0.027389 0.517000 19 0 135
0.104842 0.027389 0.517000 19 0 135
0.105409 0.027389 0.517000 19 0 135
0.105976 0.027389 0.517000 19 0 135
0.106544 0.027389 0.517000 19 0 135
0.107318 0.027442 0.518000 19 0 135
0.107886 0.027442 0.518000 19 0 135
0.108455 0.027442 0.518000 19 0 135
0.109023 0.027442 0.518000 19 0 135
0.109591 0.027442 0.518000 19 0 135
0.110160 0.027442 0.518000 19 0 135
0.110728 0.027442 0.518000 19 0 135
0.111296 0.027442 0.518000 19 0 135
0.043121 0.030891 0.571000 46 26 162
0.043748 0.030891 0.571000 46 26 162
0.044374 0.030891 0.571000 46 26 162
0.045000 0.030891 0.571000 46 26 162
0.045627 0.030891 0.571000 46 26 162
0.046253 0.030891 0.571000 46 26 162
0.046962 0.030945 0.572000 46 26 162
0.047590 0.030945 0.572000 46 26 162
0.048217 0.030945 0.572000 46 26 162
0.048845 0.030945 0.572000 46 26 162
0.049472 0.030945 0.572000 46 26 162
0.050187 0.030999 0.573000 46 26 162
0.050816 0.030999 0.573000 46 26 162
0.051445 0.030999 0.573000 46 26 162
0.052073 0.030999 0.573000 46 26 162
0.052702 0.030999 0.573000 46 26 162
0.053331 0.030999 0.573000 46 26 162
0.053960 0.030999 0.573000 46 26 162
0.054588 0.030999 0.573000 46 26 162
0.055120 0.030945 0.572000 46 26 162
0.055748 0.030945 0.572000 46 26 162
0.056376 0.030945 0.572000 46 26 162
0.057003 0.030945 0.572000 46 26 162
0.056944 0.028997 0.536000 46 26 162
0.057532 0.028997 0.536000 19 0 135
0.058012 0.028943 0.535000 19 0 135
0.058599 0.028943 0.535000 19 0 135
0.059186 0.028943 0.535000 19 0 135
0.059773 0.028943 0.535000 19 0 135
0.060247 0.028889 0.534000 19 0 135
0.060833 0.028889 0.534000 19 0 135
0.061304 0.028835 0.533000 19 0 135
0.061888 0.028835 0.533000 19 0 135
0.062473 0.028835 0.533000 19 0 135
0.063058 0.028835 0.533000 19 0 135
0.063523 0.028781 0.532000 19 0 135
0.064107 0.028781 0.532000 19 0 135
0.064691 0.028781 0.532000 19 0 135
0.065152 0.028727 0.531000 19 0 135
0.065734 0.028727 0.531000 19 0 135
0.066317 0.028727 0.531000 19 0 135
0.066900 0.028727 0.531000 19 0 135
0.067482 0.028727 0.531000 19 0 135
0.068065 0.028727 0.531000 19 0 135
0.068518 0.028673 0.530000 19 0 135
0.069099 0.028673 0.530000 19 0 135
0.069550 0.028618 0.529000 19 0 135
0.070130 0.028618 0.529000 19 0 135
0.070577 0.028564 0.528000 19 0 135
0.071021 0.028510 0.527000 19 0 135
0.071927 0.028186 0.521000 19 0 135
0.072499 0.028186 0.521000 19 0 135
